ply
format ascii 1.0
comment Created by CloudCompare v2.11.3 (Anoia)
comment Created 2023/6/7 20:58
obj_info Generated by CloudCompare!
element vertex 688
property float x
property float y
property float z
property uchar red
property uchar green
property uchar blue
property float nx
property float ny
property float nz
property float Image
end_header
-7.48337 15.1765 -36.2856 227 227 225 0.117912 0.992886 0.0165297 6 
-8.40124 15.5666 -35.869 154 160 165 0.0911583 0.918386 -0.385042 4 
-8.8735 15.5524 -35.7514 165 147 134 0.030085 0.99903 -0.0321598 5 
-8.88756 15.4338 -35.8083 189 171 156 -0.0482149 0.934327 0.353142 4 
-9.1062 15.4684 -35.7357 173 148 132 0.0407995 0.800514 0.597924 3 
-1.66131 14.5698 -37.8948 214 215 206 -0.0198631 0.99838 -0.0533166 3 
-2.13844 14.6681 -37.6932 111 104 103 0.0393987 0.997747 -0.0543064 3 
-3.5008 14.8328 -37.3065 174 144 144 0.290816 0.956599 0.0185627 3 
-4.10805 14.925 -37.141 188 119 128 0.0595276 0.996817 -0.0530337 5 
-4.47282 14.9378 -37.0417 174 111 117 0.012883 0.999917 0.000990998 4 
-6.09031 14.9873 -36.6635 218 220 216 0.0234204 0.991465 0.128255 4 
-6.90166 15.0386 -36.4599 231 232 231 0.11899 0.991585 0.0509958 5 
-7.28681 15.066 -36.3548 232 233 232 0.0790741 0.994551 -0.0679369 5 
-8.19828 15.353 -35.9778 121 126 129 0.343456 0.835901 -0.428144 4 
-8.2416 15.4203 -35.9146 115 114 114 0.22545 0.876417 -0.425518 5 
-8.35583 15.4593 -35.868 159 150 144 0.062687 0.99768 -0.0265623 5 
-8.51883 15.4174 -35.862 176 167 161 0.0932152 0.987609 0.126253 4 
-8.60575 15.5382 -35.7803 138 123 115 0.0431338 0.998391 -0.0368216 3 
-8.76947 15.5766 -35.7133 157 136 121 0.081047 0.987833 -0.132729 4 
-1.9794 14.7552 -37.6363 167 163 158 0.164217 0.979126 -0.119767 5 
-2.22715 14.7335 -37.6225 152 151 152 0.201866 0.968187 -0.147864 4 
-2.35995 14.7551 -37.5742 187 188 184 0.0605664 0.997752 0.0286893 5 
-2.46996 14.7491 -37.5627 217 218 214 0.032287 0.998814 0.0364531 5 
-2.76089 14.7595 -37.467 219 219 213 0.135614 0.988709 -0.0637503 5 
-5.28083 14.9486 -36.8233 166 150 144 0.0386159 0.998796 -0.0302665 5 
-5.54241 14.9504 -36.7526 225 225 220 0.017666 0.99865 0.0488414 5 
-6.39511 15.0422 -36.5131 235 233 232 0.0872295 0.96711 0.238933 3 
-7.40637 15.2112 -36.1922 211 209 204 -0.0495429 0.998237 -0.0326773 3 
-8.21571 15.5041 -35.847 120 125 134 0.188981 0.904511 -0.38229 3 
-9.3173 15.4513 -35.6367 175 150 132 -0.0551661 0.587024 0.807688 5 
-1.22853 14.8044 -37.7303 98 71 77 -0.12497 0.992022 0.016589 3 
-1.35339 14.7226 -37.7338 103 74 83 -0.251054 0.965107 -0.0744331 3 
-1.88007 14.7614 -37.6092 193 192 185 -0.07294 0.9899 -0.121567 3 
-4.04826 14.939 -37.0458 185 118 125 0.0691125 0.987488 0.141739 4 
-4.40827 14.9679 -36.9584 151 99 102 0.0686316 0.993471 0.0911338 4 
-4.97606 14.951 -36.8326 153 132 124 0.0475469 0.986889 0.154238 5 
-5.83057 14.964 -36.6365 223 224 221 0.0456053 0.998013 -0.0434841 3 
-6.69294 15.0745 -36.3915 227 228 226 0.0735817 0.969034 0.235711 3 
-6.91845 15.0549 -36.3624 232 232 231 0.158621 0.987101 0.021682 5 
-7.04127 15.0659 -36.321 231 231 231 0.108825 0.99289 0.0482421 4 
-7.26157 15.1385 -36.2201 219 220 216 0.125343 0.990095 0.0632465 6 
-7.19331 15.078 -36.2838 222 224 223 0.0722028 0.99683 -0.0334073 3 
-7.36825 15.0958 -36.2214 225 227 225 0.125187 0.991348 -0.0394735 4 
-1.47748 14.8844 -37.5636 219 215 212 0.0419006 0.990893 0.127967 3 
-1.61182 14.822 -37.5872 220 220 214 0.0321891 0.993423 0.109887 3 
-1.99623 14.8268 -37.5187 203 204 198 0.0580131 0.983855 -0.169304 3 
-3.45885 14.8328 -37.1904 219 212 207 0.27628 0.958705 0.0674786 4 
-4.1952 14.9432 -36.9694 150 96 99 0.0614215 0.988539 0.137909 4 
-4.56605 14.9546 -36.8778 156 122 113 0.0432347 0.994399 0.0964467 5 
-4.76645 14.9636 -36.833 157 132 124 0.0514969 0.995971 0.0734104 5 
-6.59186 15.0153 -36.397 233 233 232 0.0401865 0.970564 0.237466 4 
-6.80339 15.0639 -36.3205 226 227 226 0.0491076 0.97856 0.200024 3 
-7.5405 15.1623 -36.0987 220 220 217 0.0646728 0.997658 0.0222644 5 
-1.43441 14.7759 -37.6074 133 116 118 -0.0897368 0.995754 -0.0205422 3 
-1.62009 14.6789 -37.618 223 224 219 -0.00104861 0.997224 0.074451 3 
-3.68231 14.8744 -37.0676 177 113 120 0.174507 0.979925 -0.0964061 4 
-4.64796 14.9245 -36.8232 165 152 144 0.0584353 0.981475 0.182461 4 
-5.54415 14.9414 -36.6169 226 227 224 0.119769 0.991227 -0.055892 5 
-6.96089 15.0652 -36.2519 230 231 229 0.105469 0.992319 -0.0646425 5 
-7.1241 15.0823 -36.2048 233 234 232 0.104961 0.994429 -0.00973869 6 
-7.42518 15.1035 -36.1314 230 231 229 0.0519144 0.99521 -0.0828421 4 
-10.3742 15.1214 -35.4562 105 98 96 -0.230924 0.858797 0.457321 3 
-1.3833 14.8157 -37.531 82 63 63 0.278793 0.955675 -0.0946598 3 
-1.51068 14.7095 -37.5957 192 192 189 0.0133226 0.999192 0.0379181 3 
-1.74828 14.6782 -37.5495 224 224 220 0.11331 0.993384 -0.0187016 3 
-3.77955 14.8915 -36.9999 164 108 112 0.0972013 0.994948 0.0251194 5 
-3.87786 14.9012 -36.9646 149 101 100 0.048941 0.998606 0.0197847 4 
-4.07484 14.9251 -36.9033 153 114 107 0.0340098 0.995061 0.0932527 4 
-4.34706 14.946 -36.8426 161 133 124 0.0282887 0.998487 0.0471479 5 
-6.08077 14.9992 -36.4341 233 233 232 0.0700224 0.994762 -0.0744682 5 
-6.42427 15.0057 -36.3639 237 237 236 0.0680192 0.990313 0.121051 3 
-6.66207 15.0403 -36.2875 232 233 231 0.0241433 0.998274 0.0535352 5 
-7.19346 15.1032 -36.1157 226 227 225 0.0976548 0.991483 -0.086166 4 
-7.33056 15.1153 -36.0993 234 235 234 0.112 0.992161 -0.0554343 5 
-10.553 15.0992 -35.3759 232 232 235 -0.107293 0.859777 0.499271 3 
-1.23258 14.6595 -37.6491 158 154 148 0.0656096 0.997052 -0.039796 3 
-1.6549 14.6748 -37.5069 219 219 216 -0.0608163 0.997601 0.0330755 3 
-2.46669 14.7848 -37.3097 214 215 209 0.0944284 0.994276 0.0499915 5 
-3.03555 14.8364 -37.1434 209 209 204 0.0430628 0.99486 -0.0916464 5 
-3.13962 14.8266 -37.1106 211 211 205 0.10265 0.990745 -0.0888095 6 
-3.47749 14.8361 -37.0476 187 174 168 0.0200231 0.997993 -0.0600693 5 
-3.96483 14.9092 -36.8854 161 128 119 0.0535818 0.996184 0.0688909 6 
-6.52812 15.0379 -36.2598 234 235 234 0.0686316 0.993471 0.0911338 5 
-6.74631 15.0344 -36.21 225 227 225 -0.0581952 0.995906 -0.0691754 4 
-6.88848 15.0317 -36.1752 230 230 229 0.148128 0.983904 -0.099956 5 
-7.48217 15.109 -36.0196 229 230 228 0.0456387 0.994033 -0.0990694 5 
-7.62213 15.2709 -35.875 237 238 234 0.434198 0.570613 0.697046 3 
-1.31855 14.7213 -37.4949 221 222 217 0.106647 0.994292 0.00323172 3 
-1.40752 14.6805 -37.532 226 227 222 -0.0949601 0.99548 0.00106697 3 
-1.56533 14.7523 -37.4464 226 227 223 0.00527522 0.997016 0.0770181 3 
-1.80051 14.696 -37.4444 219 220 215 -0.0445085 0.998854 0.0175964 4 
-2.78331 14.8002 -37.1919 214 215 208 0.0981483 0.987396 -0.124164 4 
-3.81866 14.896 -36.8817 157 124 116 0.0349962 0.997923 0.0540851 5 
-4.3676 14.9052 -36.7405 232 232 228 0.0601932 0.99794 0.0221765 4 
-4.70241 14.8819 -36.6973 229 230 227 0.0886479 0.991244 0.097858 6 
-4.82416 14.8938 -36.6586 229 230 228 0.109185 0.993698 0.0253663 4 
-6.98269 15.063 -36.1008 230 231 229 0.163449 0.981904 -0.0956479 5 
-7.25174 15.1073 -36.0201 230 231 230 0.194089 0.97777 -0.0793446 4 
-7.59341 15.1287 -35.9302 227 227 226 -0.0512319 0.980555 -0.189439 5 
-2.40801 14.7677 -37.2276 207 208 201 0.148435 0.973072 0.176346 3 
-2.66356 14.8043 -37.1427 200 202 195 0.190183 0.975774 0.108143 4 
-3.19006 14.8352 -37.0185 151 137 132 0.0669806 0.995925 -0.0603924 6 
-5.15462 14.9863 -36.4677 235 236 232 -0.0632312 0.995059 0.076543 5 
-6.22276 14.9985 -36.25 233 233 232 0.184463 0.982642 -0.0197224 5 
-6.37089 15.0186 -36.2103 232 232 231 0.0765361 0.997066 -0.00104844 5 
-6.57815 15.0103 -36.1749 230 231 230 0.118166 0.992816 -0.0187741 4 
-7.0818 15.0729 -36.0413 230 231 230 0.126537 0.990635 -0.0512987 5 
-7.32144 15.1354 -35.9307 228 229 226 0.0460688 0.997443 0.0546397 5 
-8.29647 15.269 -35.6436 175 147 128 0.0494444 0.600396 0.798173 6 
-1.74183 14.7382 -37.3122 218 220 214 0.135139 0.990645 -0.0189864 4 
-1.96774 14.7303 -37.2831 213 213 209 0.130653 0.991428 0.00109793 5 
-2.4934 14.7913 -37.1655 209 210 204 0.086461 0.993741 0.0707408 4 
-3.03069 14.8445 -37.0002 145 133 129 0.0597712 0.996549 -0.0575977 5 
-3.26868 14.8432 -36.9531 124 97 94 0.0689106 0.992991 -0.096023 5 
-6.00405 14.9969 -36.2648 231 232 230 0.0730867 0.98957 -0.124131 5 
-6.69294 15.0204 -36.1092 229 230 229 0.00528546 0.996838 -0.0792819 5 
-6.83124 15.043 -36.0582 230 231 229 0.107649 0.983357 -0.146355 5 
-7.13509 15.1085 -35.9546 236 237 235 0.0978899 0.982524 0.158316 4 
-10.8129 15.1742 -35.1269 69 64 62 -0.853586 0.520809 0.0121748 3 
-13.0323 11.1157 -36.9683 45 61 70 -0.994557 -0.0725546 -0.0747871 3 
-1.24944 14.7457 -37.3918 211 212 207 0.177792 0.982034 0.0632415 4 
-1.67087 14.7787 -37.2534 223 225 220 0.0770181 0.997016 0.00527522 4 
-1.84826 14.7476 -37.2533 215 216 211 0.0221765 0.99794 0.0601932 3 
-3.14266 14.8424 -36.9179 139 109 103 0.0593746 0.993684 -0.0952233 5 
-3.38218 14.857 -36.8796 152 124 116 0.115998 0.992176 -0.0461739 5 
-3.50034 14.8701 -36.8302 148 125 116 0.0809632 0.994849 -0.0609996 5 
-3.6336 14.904 -36.7811 159 148 139 0.110181 0.99381 0.0141817 5 
-4.19967 14.9487 -36.6486 225 225 221 0.0794242 0.991076 -0.10705 4 
-4.32261 14.895 -36.639 225 225 222 0.122439 0.991865 -0.034822 5 
-4.5248 14.9023 -36.5636 229 229 225 -0.00100662 0.999573 -0.029192 5 
-6.27308 15.0087 -36.1512 230 231 230 0.115268 0.992648 0.0369305 5 
-6.44436 15.0195 -36.1105 231 231 230 0.101947 0.994785 -0.00321937 5 
-6.59853 15.0259 -36.0722 230 231 229 0.0708851 0.993516 -0.0888876 5 
-7.18919 15.1398 -35.8694 227 228 226 0.0862397 0.938023 0.335672 3 
-7.59379 15.1424 -35.7849 223 225 221 -0.206877 0.978282 0.0128568 4 
-7.78292 15.1827 -35.7055 232 233 229 0.117811 0.530876 0.839221 3 
-9.47147 15.0771 -35.3952 94 80 79 -0.122264 0.941834 0.313049 4 
-2.50655 14.7814 -37.0428 204 206 200 0.147864 0.981276 0.123423 3 
-2.63996 14.7997 -37.0252 176 173 166 0.240719 0.953464 0.181548 4 
-3.21704 14.8586 -36.8494 159 133 124 0.0852835 0.9927 -0.0852835 5 
-4.87391 14.9406 -36.4281 228 229 227 0.130653 0.991428 0.00109793 6 
-6.68907 15.0708 -35.9645 223 224 222 0.108264 0.890012 -0.442897 4 
-6.78893 15.0615 -35.9547 221 222 221 -0.242131 0.825096 -0.51048 3 
-6.8983 15.0965 -35.9112 231 231 230 -0.061535 0.938737 -0.339097 3 
-7.00832 15.1113 -35.8763 230 230 228 0.158458 0.935589 0.315537 3 
-10.6013 15.1026 -35.0967 144 148 157 0.108595 0.993026 0.0459009 5 
-0.89424 14.517 -37.5273 222 222 217 -0.166971 0.978329 0.122446 3 
-1.12032 14.7421 -37.3208 214 215 210 0.100138 0.991018 0.0886277 4 
-1.53076 14.7247 -37.2675 215 216 211 0.00990803 0.991904 0.126603 3 
-1.879 14.7367 -37.1507 212 213 208 0.102403 0.994299 0.0297299 4 
-2.29635 14.7338 -37.0791 220 220 216 0.101916 0.993399 0.0526378 4 
-3.0204 14.8367 -36.8691 162 134 126 0.0723939 0.994581 -0.0746214 4 
-3.36782 14.8781 -36.7704 163 151 143 0.107103 0.994219 -0.00757294 6 
-3.48444 14.9001 -36.7357 212 209 201 0.0646728 0.997658 0.0222644 5 
-3.63195 14.9117 -36.6797 219 220 215 0.0977478 0.988078 0.118946 4 
-4.1295 14.9209 -36.5822 224 224 221 -0.00516281 0.998488 -0.0547258 4 
-6.20955 14.9977 -36.0741 229 230 228 0.141414 0.9899 0.0100215 5 
-6.42614 15.0401 -36.0026 226 226 224 0.0642902 0.961831 -0.265985 3 
-6.57664 15.0434 -35.9649 229 231 230 0.081898 0.990851 0.107275 4 
-9.75302 15.0543 -35.2775 82 69 64 -0.0865203 0.990946 0.102671 4 
-9.90689 14.9782 -35.2746 195 156 130 -0.0118716 0.43925 0.898286 5 
-10.7479 15.17 -34.9954 161 157 154 0.243373 0.969932 0.00118719 3 
-13.6575 14.1099 -34.9196 169 152 142 0.0178117 0.546683 0.837151 3 
-1.04924 14.6549 -37.3596 212 213 207 -0.196268 0.976401 0.0901103 3 
-1.62126 14.7281 -37.1779 205 205 200 0.0221326 0.998073 -0.0579662 3 
-2.36957 14.7561 -36.999 215 216 212 0.194751 0.978594 0.0665299 4 
-2.56899 14.771 -36.9548 186 183 174 0.170436 0.985368 -0.00112871 3 
-3.10831 14.8526 -36.806 151 135 126 0.0876022 0.994673 -0.0543355 5 
-3.26949 14.8652 -36.7564 194 192 183 0.0859245 0.994269 -0.0636064 5 
-3.71459 14.9223 -36.6069 200 199 194 0.0303163 0.991455 -0.126879 5 
-3.81458 14.9202 -36.5978 193 190 186 -0.00111004 0.989041 0.147635 5 
-4.27061 14.9344 -36.4943 226 227 223 0.0887951 0.996003 0.00962839 5 
-5.46789 14.9301 -36.2199 230 231 230 0.0344393 0.998739 0.0365265 5 
-6.75979 15.1031 -35.8507 221 223 219 0.0590929 0.988358 0.140201 4 
-6.95289 15.1095 -35.7914 221 222 219 0.0728491 0.957263 0.279894 3 
-7.13873 15.1083 -35.7602 228 229 225 0.12623 0.961689 0.24335 4 
-7.23786 15.114 -35.7352 226 226 222 0.165469 0.942218 0.291281 4 
-7.52004 15.1194 -35.6737 137 124 124 -0.0741161 0.987038 0.14235 4 
-9.99448 14.9477 -35.2281 188 151 126 -0.0401922 0.539129 0.841263 4 
-11.0508 15.1592 -34.8525 101 97 97 -0.87931 0.456205 -0.136718 3 
-10.9486 15.1914 -34.8969 84 79 78 -0.796539 0.582724 -0.161115 3 
-11.3124 14.7161 -35.055 78 56 52 -0.0796971 0.479581 0.873871 4 
-1.8056 14.6941 -37.0887 216 217 211 0.0624611 0.996091 0.0624611 3 
-1.97617 14.7035 -37.074 213 213 209 0.0492035 0.996099 0.0732586 5 
-2.80269 14.8049 -36.8538 158 135 126 0.109946 0.993865 -0.0119743 5 
-2.92892 14.8383 -36.7971 144 130 121 0.0618175 0.996672 -0.0531414 4 
-3.41077 14.8931 -36.6418 218 218 213 0.0993694 0.994786 0.0229314 5 
-3.5334 14.8947 -36.6314 224 224 222 0.0526046 0.99734 0.0504575 5 
-3.9583 14.9444 -36.4868 210 205 200 0.0100026 0.990252 0.138924 4 
-6.48459 15.0411 -35.8974 231 232 231 0.105008 0.923249 -0.369573 3 
-6.64578 15.069 -35.869 232 233 231 0.0651281 0.926414 -0.370831 3 
-7.03806 15.1219 -35.7301 226 227 223 0.141526 0.964715 0.222027 4 
-9.12846 14.9976 -35.3433 180 146 123 0.133378 0.526185 0.839845 4 
-9.82614 14.8961 -35.2656 189 149 123 0.111597 0.450625 0.885711 4 
-10.3415 15.0767 -35.0549 101 94 100 -0.434809 0.898241 -0.0640627 3 
-10.6104 15.1322 -34.9464 192 196 198 0.0617857 0.997997 0.0136138 6 
-2.46352 14.7555 -36.9054 206 207 200 0.244002 0.964509 0.100922 3 
-3.13091 14.874 -36.6767 216 217 210 0.102562 0.992931 0.0597337 5 
-3.25091 14.8698 -36.6508 211 213 208 0.0958878 0.949684 0.298172 4 
-4.04917 14.8953 -36.4762 227 227 224 0.308529 0.950774 0.028964 3 
-4.21526 14.9384 -36.4074 219 220 216 0.247556 0.963287 0.103896 4 
-4.58345 14.9753 -36.2997 171 168 164 0.0383311 0.995513 -0.0865187 5 
-4.71734 14.927 -36.3102 126 122 121 -0.328071 0.931612 -0.156422 4 
-6.37914 15.0384 -35.8869 230 232 229 0.0565608 0.932595 -0.356465 3 
-7.31876 15.1131 -35.6315 132 111 107 0.0858124 0.991991 0.0926774 4 
-9.27846 14.9759 -35.2768 162 142 127 0.283881 0.769176 0.572521 3 
-10.3567 15.1474 -34.9558 81 76 81 -0.155693 0.98757 -0.0215924 4 
-10.6959 15.156 -34.8703 97 100 107 0.17062 0.981369 -0.0883353 5 
-1.20934 14.7226 -37.1014 219 218 213 0.10609 0.994183 0.0185931 3 
-1.2568 14.6076 -37.1811 210 210 204 0.141682 0.989507 -0.0283364 3 
-2.57193 14.771 -36.8055 203 204 195 0.0297248 0.999368 -0.0194749 5 
-2.86134 14.8342 -36.717 224 224 218 0.0770065 0.994388 -0.0725423 4 
-3.54162 14.8939 -36.5313 221 221 217 0.0766479 0.991846 0.101816 5 
-3.75708 14.8934 -36.4914 227 228 224 0.0638646 0.993823 0.090755 4 
-4.30551 14.9217 -36.3419 216 217 211 0.0875573 0.992695 0.0830089 3 
-4.87773 14.9114 -36.2232 183 181 177 -0.186044 0.980633 -0.0612145 4 
-7.40932 15.1497 -35.5501 127 104 96 0.12536 0.982189 0.139965 3 
-7.53856 15.0892 -35.5667 136 112 105 0.0683179 0.996573 0.0466297 5 
-7.64355 15.0894 -35.5313 120 101 100 -0.0685998 0.996331 0.0511776 4 
-7.75433 15.0996 -35.5086 203 198 197 0.00493571 0.999976 0.00493571 5 
-9.0621 14.9175 -35.3129 191 157 133 0.188246 0.613713 0.766759 4 
-10.4348 15.1532 -34.8873 92 91 94 -0.336216 0.91341 -0.229435 3 
-10.5814 15.1793 -34.8183 88 87 93 -0.62114 0.72972 -0.28582 3 
-1.70832 14.693 -36.999 211 212 205 -0.00322626 0.994762 0.102165 4 
-1.87983 14.7194 -36.9573 213 214 209 0.030446 0.998419 0.0472438 5 
-2.25175 14.7099 -36.866 211 212 207 0.0974556 0.993599 0.0571291 5 
-3.37774 14.8427 -36.5542 219 221 217 0.162435 0.980714 0.108697 4 
-3.88398 14.8809 -36.4219 228 229 225 0.175095 0.982676 0.0607472 5 
-4.03867 14.9077 -36.3698 227 228 224 0.0645392 0.997713 -0.0201024 5 
-4.42023 14.9581 -36.2662 207 208 200 0.175006 0.981241 0.0808649 5 
-5.34189 14.9737 -36.0485 227 228 227 0.0656096 0.997052 -0.039796 4 
-6.16413 15.0324 -35.8341 232 232 230 0.100472 0.936399 -0.336246 3 
-7.15868 15.1073 -35.591 136 111 104 0.0677984 0.994747 -0.07669 4 
-0.833425 14.6649 -37.1598 206 206 201 -0.0298429 0.999223 -0.0257267 3 
-2.44977 14.745 -36.7539 216 217 212 0.101603 0.992054 0.0742043 7 
-2.75252 14.8079 -36.6633 216 218 213 0.142798 0.987979 -0.0592091 5 
-3.19876 14.8547 -36.5515 213 214 211 0.23263 0.868986 0.436744 3 
-3.62163 14.8837 -36.4222 227 227 223 0.0845053 0.995407 0.0449963 5 
-5.43978 14.9606 -35.994 227 228 227 -0.00516281 0.998488 -0.0547258 5 
-7.2651 15.1222 -35.5104 136 111 100 0.0312441 0.99658 -0.0764943 4 
-7.48365 15.077 -35.4816 132 107 97 0.0418426 0.99912 0.00306165 5 
-7.69632 15.1059 -35.4262 151 137 135 -0.0612787 0.998116 0.00311587 3 
-7.8423 15.1059 -35.3757 220 220 217 0.0377657 0.999261 0.00714487 4 
-7.9725 15.1184 -35.346 194 196 190 0.11138 0.993773 0.00324409 3 
-8.5769 14.9354 -35.318 58 48 42 -0.0675101 0.636319 0.768466 3 
-9.03993 14.9573 -35.2071 124 102 94 0.14543 0.607206 0.781122 4 
-9.11633 14.8882 -35.2298 174 143 127 0.369626 0.924742 -0.0907141 3 
-10.4539 15.1957 -34.7537 98 89 91 -0.364003 0.897482 -0.249055 6 
-1.80289 14.6971 -36.8788 212 213 207 0.0524508 0.998623 -0.00102845 5 
-1.9401 14.6964 -36.8542 212 213 207 0.091881 0.995558 -0.0205381 5 
-2.53532 14.7637 -36.695 214 215 210 0.166775 0.985699 0.0241537 5 
-2.84678 14.8339 -36.5832 220 220 218 0.104194 0.979423 -0.172839 4 
-3.4015 14.8796 -36.4332 221 222 218 -0.0389293 0.998483 -0.0389293 5 
-3.51822 14.8556 -36.4128 228 230 226 0.0482477 0.998831 0.00307964 6 
-3.71809 14.8932 -36.3549 227 228 224 0.149235 0.984953 0.0871534 5 
-3.94959 14.9081 -36.3027 220 222 218 0.136021 0.990368 0.0258553 3 
-4.12774 14.9392 -36.2391 214 215 209 -0.0891707 0.995918 -0.0139665 7 
-5.15225 14.9466 -36.0085 227 228 224 0.0838089 0.99591 -0.0337412 6 
-6.93478 15.0828 -35.5509 141 116 105 0.0345431 0.977928 -0.206068 3 
-7.04339 15.0992 -35.5247 135 111 101 0.0552137 0.99272 -0.107047 4 
-7.33026 15.1413 -35.4369 135 110 98 -0.0531782 0.992283 -0.112014 3 
-8.0626 15.1163 -35.2923 212 213 205 0.0466724 0.998789 -0.0155575 4 
-10.2146 15.1825 -34.7791 109 99 96 0.0396278 0.990695 -0.130206 4 
-2.1864 14.719 -36.7355 213 214 210 0.0460688 0.997443 -0.0546397 5 
-3.03397 14.8357 -36.497 222 224 220 0.113049 0.992817 0.0391754 4 
-4.74248 14.9444 -36.0477 102 81 77 -0.643156 0.763479 0.0587292 3 
-5.66505 14.9437 -35.8524 231 232 230 0.0976138 0.994784 -0.0296132 5 
-6.80965 15.0762 -35.5398 138 114 104 0.0150634 0.981438 -0.191189 3 
-7.22118 15.1374 -35.4168 131 106 94 0.0729464 0.97303 -0.218839 3 
-7.56019 15.0741 -35.3742 130 104 97 0.12323 0.991496 0.0418305 5 
-7.75738 15.0894 -35.3223 219 217 213 0.0824886 0.995362 -0.0494932 5 
-0.682584 14.5873 -37.0958 187 187 182 0.156997 0.983927 0.0850899 4 
-1.25831 14.678 -36.9288 208 208 203 0.0941981 0.989661 0.108153 4 
-1.44803 14.6836 -36.867 213 214 209 0.111891 0.988176 0.104824 5 
-1.58693 14.6934 -36.8385 212 212 208 0.0866977 0.990665 0.105193 5 
-1.93293 14.6998 -36.7441 213 214 210 0.101947 0.994785 -0.00321937 5 
-2.51434 14.7705 -36.5962 217 217 214 0.154828 0.987456 -0.0309655 5 
-2.71435 14.7964 -36.5315 219 220 218 0.0729707 0.997266 -0.011633 4 
-3.13131 14.8399 -36.4258 223 224 221 0.165672 0.986032 -0.0171384 5 
-3.56281 14.889 -36.3018 230 231 228 0.0434933 0.993656 0.103715 5 
-3.9673 14.9097 -36.1987 217 218 214 0.223291 0.974033 0.0374164 6 
-3.8429 14.8599 -36.2637 230 231 227 0.181716 0.980784 0.0710016 4 
-4.17853 14.9367 -36.1489 169 159 149 0.0830089 0.992695 0.0875573 4 
-4.92073 14.9311 -35.9865 217 219 214 -0.07914 0.996297 0.0336074 3 
-6.65651 15.0508 -35.5438 139 116 105 0.00834847 0.969616 -0.244491 3 
-7.44883 15.1212 -35.3226 124 99 88 -0.0550931 0.997077 -0.0529326 4 
-7.82993 15.1319 -35.2285 212 208 204 0.0887951 0.996003 0.00962839 3 
-7.95303 15.1137 -35.2295 216 217 213 0.102403 0.994299 0.0297299 5 
-8.2494 15.1863 -35.1308 112 107 102 -0.151246 0.980028 -0.129113 4 
-10.1581 15.2416 -34.6605 180 179 180 -0.0424125 0.973063 -0.226604 4 
-1.16073 14.6838 -36.887 208 209 203 0.118308 0.985904 0.118308 4 
-2.27006 14.7282 -36.6276 217 217 214 0.10883 0.988833 -0.101809 5 
-2.58797 14.7698 -36.5238 219 219 216 0.124134 0.987164 -0.10049 5 
-3.39072 14.8385 -36.3161 228 229 226 0.141414 0.9899 0.0100215 5 
-3.67467 14.8855 -36.2286 227 228 224 0.12466 0.991665 0.0325688 5 
-4.07606 14.923 -36.1195 200 199 190 0.126225 0.987389 0.0955538 4 
-4.30509 14.9452 -36.0839 128 102 90 0.0154337 0.999075 -0.0401276 5 
-5.21595 14.9778 -35.8338 228 229 226 -0.010966 0.9999 0.00897218 5 
-5.3598 14.9543 -35.8164 229 229 227 0.00929481 0.998676 0.0506051 5 
-5.86683 14.947 -35.7081 144 129 124 0.025319 0.999593 -0.0131659 5 
-7.09823 15.0938 -35.3813 134 109 97 0.0185931 0.994183 -0.10609 5 
-7.55529 15.1264 -35.2525 135 111 102 -0.0956226 0.99335 -0.0641234 4 
-7.66479 15.1218 -35.2341 158 141 139 -0.135144 0.990684 -0.0167534 4 
-10.9916 15.2113 -34.4639 176 155 149 -0.104238 0.979836 0.17046 3 
-1.47085 14.683 -36.7644 213 214 209 0.125343 0.990095 0.0632465 5 
-2.95505 14.7719 -36.4089 220 221 218 0.135905 0.988507 0.0662102 4 
-3.19707 14.8181 -36.3398 226 227 224 0.153316 0.988161 -0.00559548 5 
-3.48267 14.8544 -36.2442 228 228 226 0.0857615 0.996315 -0.00105878 5 
-3.74847 14.92 -36.159 225 226 222 0.169747 0.984535 -0.0433149 6 
-3.86538 14.8699 -36.1636 224 225 222 0.0511246 0.998496 0.0198238 5 
-4.77308 14.9405 -35.9217 156 145 141 -0.357621 0.933859 -0.00379104 4 
-4.93917 14.9226 -35.8863 219 222 217 -0.103476 0.99446 0.0185168 3 
-5.48716 14.9653 -35.7565 229 230 226 -0.0091868 0.999319 0.0357264 5 
-5.59054 14.9617 -35.7321 230 231 228 -0.0313924 0.999494 0.00506329 5 
-5.9426 14.9796 -35.6455 128 107 104 0.10541 0.994329 0.0141271 4 
-6.80101 15.0476 -35.4081 135 110 99 0.0163985 0.99375 -0.110417 4 
-7.24269 15.096 -35.3055 133 106 95 0.0453663 0.99474 -0.0918392 5 
-10.6276 15.2641 -34.4643 105 98 104 -0.0326773 0.998237 -0.0495429 4 
-13.6137 13.7247 -34.6554 147 134 129 0.046831 0.628671 0.77626 3 
-0.836707 14.6645 -36.8841 201 202 196 -0.090919 0.99583 -0.00748744 3 
-2.30954 14.7476 -36.5 219 219 216 0.120348 0.992594 -0.0165616 6 
-2.67287 14.7553 -36.4226 221 222 219 0.0300247 0.999098 -0.0300247 5 
-2.78742 14.7464 -36.423 223 224 221 0.00493571 0.999976 0.00493571 5 
-3.04245 14.79 -36.3464 224 225 222 0.0828324 0.995093 -0.0541172 5 
-3.27891 14.8137 -36.2729 228 229 227 0.145719 0.987395 0.061785 5 
-3.55743 14.879 -36.1695 223 223 219 0.119244 0.991429 0.0533759 6 
-3.92412 14.9083 -36.0632 208 208 203 0.105257 0.993852 0.0343472 5 
-4.18726 14.9211 -36.0263 149 129 115 0.0273985 0.999538 -0.0131919 5 
-4.32261 14.9469 -35.9816 138 110 98 0.00505337 0.999558 -0.0293096 5 
-5.67224 14.9547 -35.6674 229 231 227 -0.0660225 0.996831 -0.0443758 5 
-7.33822 15.1113 -35.2351 136 110 99 0.0156789 0.998223 -0.0574893 5 
-7.599 15.139 -35.1482 134 110 103 -0.141672 0.989441 -0.0306013 3 
-7.796 15.1293 -35.1221 192 188 183 0.0956359 0.994833 -0.0340771 4 
-7.95227 15.0989 -35.0989 208 209 203 0.0982759 0.992925 0.0666468 4 
-1.2629 14.667 -36.7284 210 212 206 0.0582052 0.997954 0.0264569 5 
-1.83727 14.7138 -36.57 215 215 211 0.121473 0.99258 -0.00547177 5 
-2.05521 14.7204 -36.525 216 217 213 0.0665122 0.993174 -0.0958227 5 
-2.86008 14.7609 -36.3447 224 225 222 0.0590929 0.988358 -0.140201 5 
-3.34293 14.8389 -36.1987 227 228 225 0.182863 0.981247 0.0609544 5 
-3.69444 14.9136 -36.0654 225 226 222 0.130369 0.987751 -0.0857382 5 
-3.80681 14.8813 -36.0708 224 225 221 0.0608163 0.997601 -0.0330755 5 
-4.02928 14.8827 -36.0378 226 226 218 0.171195 0.985221 -0.0056687 5 
-4.87491 14.9046 -35.8076 203 198 194 -0.607231 0.794495 -0.00688471 3 
-5.25573 14.9543 -35.701 227 228 225 0.033402 0.996673 0.0743464 5 
-5.74728 14.9575 -35.5964 228 230 224 -0.0154033 0.999159 -0.0379947 7 
-5.8559 14.9587 -35.5782 128 111 103 -0.00301411 0.99968 -0.0251176 5 
-5.95146 14.9846 -35.5458 141 118 110 0.00516281 0.998488 -0.0547258 5 
-6.32548 15.0002 -35.4515 141 117 108 0.027952 0.999025 0.0341636 6 
-6.46686 15.0303 -35.4144 139 116 106 0.0980703 0.993103 -0.064253 6 
-7.18501 15.1021 -35.2224 133 107 95 0.0205783 0.995338 -0.0942268 5 
-7.48849 15.1271 -35.1303 133 107 94 -0.0142912 0.992692 -0.119827 4 
-7.69398 15.133 -35.0989 205 196 191 0.0571291 0.993599 -0.0974556 3 
-8.20059 15.4156 -34.7979 158 137 129 -0.607222 0.195233 0.770172 3 
-1.08383 14.6608 -36.7365 210 210 205 0.129646 0.990944 -0.034948 5 
-2.70789 14.7698 -36.3022 223 223 220 0.0363819 0.998944 0.0280661 6 
-2.93582 14.7752 -36.2696 223 224 222 0.138247 0.986634 -0.0862567 5 
-3.2248 14.8182 -36.179 225 226 224 0.150973 0.98659 -0.0620276 5 
-3.41689 14.8696 -36.0982 227 228 224 0.192296 0.974046 0.119399 6 
-4.11692 14.9239 -35.9286 193 191 179 0.120348 0.992594 0.0165616 6 
-4.23806 14.8958 -35.9318 140 115 101 0.00888415 0.99996 0.000987127 4 
-4.37706 14.9321 -35.8741 134 107 92 0.0481492 0.99884 -0.00102445 5 
-6.75524 15.0454 -35.3034 132 107 96 0.0365305 0.981611 -0.187366 6 
-6.8823 15.0655 -35.2679 132 108 96 0.071411 0.979179 -0.190026 5 
-7.25607 15.1392 -35.1453 140 115 103 0.0763744 0.995081 -0.0630919 5 
-7.38264 15.1498 -35.0998 134 108 94 0.0527995 0.971265 -0.232072 3 
-7.56992 15.1642 -35.0412 149 121 107 -0.187332 0.974379 -0.124469 3 
-7.83352 15.1361 -35.0096 196 190 184 0.0834827 0.996509 -0.00105674 4 
-10.2677 15.2001 -34.4543 164 143 142 0.154605 0.788033 0.595903 3 
-1.85225 14.7305 -36.4699 217 217 213 0.134979 0.990224 -0.0351626 5 
-2.81708 14.7622 -36.2454 225 226 223 0.081383 0.996678 0.00317077 5 
-3.55517 14.8748 -36.0342 225 227 223 0.154911 0.986537 -0.0524134 5 
-3.74311 14.9185 -35.9703 223 224 220 0.121497 0.991276 -0.0510967 5 
-3.94263 14.8798 -35.961 222 223 220 0.239709 0.96762 -0.0790662 4 
-5.86492 14.97 -35.4677 126 109 100 -0.00913272 0.999525 -0.0294276 5 
-6.04455 14.9927 -35.4246 138 113 103 0.042356 0.998982 -0.0154961 5 
-6.15644 15.0015 -35.3982 127 102 92 0.0834827 0.996509 0.00105674 4 
-6.39934 15.0122 -35.3409 131 105 95 0.0618175 0.996672 -0.0531414 5 
-6.51333 15.0212 -35.3136 133 107 97 0.052743 0.99314 -0.104364 5 
-6.62291 15.0329 -35.2966 134 109 97 0.0267016 0.983314 -0.179945 4 
-6.99215 15.1104 -35.1776 135 109 96 0.0859376 0.987694 -0.130672 4 
-7.6476 15.1755 -34.9711 162 137 125 -0.230234 0.971413 -0.0578662 3 
-7.92561 15.1398 -34.9664 215 212 207 0.188322 0.969797 0.155014 4 
-10.5895 15.24 -34.315 183 166 168 0.520855 0.799488 0.299214 3 
-1.65345 14.7358 -36.4786 215 216 212 0.136021 0.990368 0.0258553 5 
-2.24437 14.7507 -36.3274 220 220 217 0.0966402 0.994173 -0.0477647 5 
-2.44386 14.7451 -36.294 222 222 219 0.0175617 0.998948 0.0423546 5 
-3.21259 14.8359 -36.0758 226 227 225 0.12466 0.991665 0.0325688 5 
-3.32984 14.8545 -36.039 227 228 225 0.0380729 0.999156 -0.015435 5 
-4.18615 14.9086 -35.8343 144 127 111 0.0605664 0.997752 0.0286893 5 
-4.28155 14.9248 -35.806 141 114 100 0.0377657 0.999261 0.00714487 5 
-5.66471 14.9712 -35.4779 227 228 224 -0.058441 0.997747 -0.0329395 5 
-6.2838 15.009 -35.3241 141 118 108 0.0321598 0.99903 -0.030085 6 
-7.46766 15.1435 -35.0084 156 125 106 0.0888552 0.979842 -0.178928 4 
-7.94322 15.1864 -34.8661 161 157 151 0.127589 0.986133 -0.106126 3 
-8.81782 14.9776 -34.8102 90 81 77 -0.304676 0.32251 0.896192 3 
-1.38854 14.6837 -36.5052 215 216 212 0.113763 0.992327 0.0484337 5 
-3.54613 14.8739 -35.9316 224 225 222 0.0889827 0.995963 -0.0117929 5 
-3.77786 14.9076 -35.8544 223 225 221 0.0882835 0.991757 0.0928697 5 
-3.87693 14.8718 -35.8787 223 225 221 0.0741625 0.995106 -0.0653073 5 
-3.98303 14.8785 -35.8587 222 224 220 0.207235 0.97829 -0.00115774 5 
-4.08474 14.9063 -35.8017 211 210 200 0.0887951 0.996003 0.00962839 3 
-4.87569 14.9348 -35.6174 228 228 222 -0.116148 0.993227 0.00325648 4 
-6.55215 15.0162 -35.2116 134 111 100 0.0828324 0.995093 -0.0541172 5 
-6.66555 15.045 -35.182 133 110 98 0.101916 0.993399 -0.0526378 5 
-6.77823 15.0739 -35.1486 135 110 98 0.11328 0.9926 -0.0437417 5 
-7.03939 15.0915 -35.088 153 126 110 0.0198238 0.998496 -0.0511246 5 
-7.27374 15.1334 -35.0037 159 129 110 0.0708851 0.993516 -0.0888876 6 
-7.85208 15.2162 -34.8307 176 158 147 0.076804 0.991574 -0.104316 3 
-7.8164 15.135 -34.8881 188 179 171 0.108198 0.992007 -0.064919 3 
-1.74401 14.7347 -36.347 219 220 216 0.165672 0.986032 -0.0171384 5 
-1.98132 14.7111 -36.3112 220 220 217 0.11328 0.9926 -0.0437417 5 
-2.75363 14.7418 -36.1353 226 228 225 0.0746616 0.996569 -0.0357077 6 
-3.42278 14.8425 -35.9406 224 225 222 0.0233303 0.992093 -0.123317 6 
-3.63606 14.9042 -35.8566 224 225 222 0.113763 0.992327 -0.0484337 5 
-4.34761 14.9168 -35.6948 151 124 111 0.119946 0.986881 0.10807 6 
-4.70872 14.941 -35.6037 115 100 100 -0.120343 0.992555 0.0187691 4 
-5.55345 14.9589 -35.415 228 230 227 0.0626587 0.984805 -0.161967 4 
-5.71622 14.9717 -35.3793 227 228 223 -0.0436646 0.997896 -0.0479246 5 
-5.86712 14.9722 -35.3421 124 105 96 -0.0255731 0.999396 0.0235272 5 
-5.98835 14.9821 -35.3166 132 107 98 -0.00924115 0.999071 0.0420986 5 
-6.34425 15.0129 -35.2245 132 108 98 0.116648 0.993144 0.00763118 6 
-7.18084 15.0906 -35.0004 160 128 108 0.113505 0.988779 0.0971227 4 
-7.94205 15.3022 -34.7013 67 69 71 0.485444 0.626542 -0.609745 4 
-8.70835 14.9891 -34.7595 120 99 91 -0.455811 0.194499 0.868566 5 
-2.21011 14.7443 -36.2146 223 224 220 0.108427 0.991821 -0.0673388 5 
-4.22912 14.892 -35.6955 139 112 96 0.0374923 0.997296 0.0632014 5 
-5.0241 14.9715 -35.4728 231 232 229 0.0582052 0.997954 0.0264569 5 
-6.16198 14.9998 -35.2182 135 112 102 0.087785 0.994526 -0.0566713 5 
-6.81962 15.0624 -35.0502 163 135 116 0.0914455 0.994883 -0.0429684 5 
-6.93458 15.0783 -35.0121 155 126 110 0.0992549 0.97907 0.177679 4 
-7.0618 15.0759 -34.9811 154 126 109 0.0931394 0.974859 0.202423 3 
-7.42554 15.1056 -34.9067 153 125 106 0.107828 0.982567 0.151444 5 
-8.78428 14.856 -34.7783 102 94 90 -0.392047 0.34246 0.853827 3 
-0.548113 14.6734 -36.5562 92 88 91 -0.126146 0.989497 -0.0705957 4 
-0.75261 14.6731 -36.4974 211 211 207 0.194296 0.980788 -0.0174517 4 
-0.932967 14.6558 -36.4748 214 214 210 0.0461045 0.998932 0.00307364 4 
-1.36959 14.6754 -36.3758 218 218 215 0.120089 0.99266 -0.0143225 5 
-2.3175 14.7485 -36.1303 224 225 223 0.062687 0.99768 -0.0265623 5 
-2.93109 14.7894 -35.9811 219 222 219 0.0349962 0.997923 0.0540851 4 
-3.10684 14.7898 -35.9514 224 225 224 0.0297248 0.999368 -0.0194749 6 
-3.27576 14.8185 -35.8853 222 223 220 -0.0210163 0.999775 0.00300233 5 
-4.44176 14.911 -35.5854 89 68 58 0.0843654 0.996366 0.0117471 4 
-4.64686 14.9786 -35.5185 43 35 33 -0.049952 0.997977 0.0393239 3 
-4.77801 14.8664 -35.5423 210 209 204 0.0328082 0.998003 0.0539747 3 
-4.87707 14.9245 -35.4846 226 227 222 -0.0656882 0.997835 -0.00312801 4 
-5.59542 14.9678 -35.3182 231 232 228 0.0344393 0.998739 -0.0365265 5 
-5.72141 14.9658 -35.2789 231 232 228 -0.0236211 0.999277 -0.0297832 6 
-6.06045 14.9809 -35.2155 152 135 127 0.0688909 0.996184 -0.0535818 4 
-6.37675 15.0048 -35.1189 157 135 120 0.0982759 0.992925 0.0666468 3 
-8.66846 14.8461 -34.7752 109 89 83 -0.547936 0.213342 0.808858 4 
-1.44266 14.6978 -36.3051 219 219 215 0.120348 0.992594 0.0165616 6 
-1.56747 14.7097 -36.2579 213 214 209 0.124901 0.988702 0.0828782 3 
-2.12289 14.7343 -36.1425 223 223 220 0.0830089 0.992695 -0.0875573 5 
-5.88396 14.9587 -35.1982 140 125 115 -0.0415341 0.997883 0.0500539 5 
-9.49788 14.2325 -34.8717 112 89 77 0.264609 0.353305 0.897306 3 
-0.518226 14.5592 -36.5328 67 59 65 -0.197806 0.979553 -0.0367184 4 
-1.97944 14.7243 -36.1224 224 224 222 0.122061 0.989276 -0.0802116 5 
-3.57401 14.8864 -35.7021 227 228 224 -0.0399655 0.999137 -0.0112723 4 
-4.35894 14.8976 -35.5232 132 118 103 0.104097 0.991784 -0.0743552 5 
-4.71364 14.9012 -35.4434 230 233 226 0.0601932 0.99794 0.0221765 5 
-6.08181 14.9843 -35.1149 160 144 130 0.0926019 0.994076 -0.0569 5 
-6.19236 14.9733 -35.0882 165 143 127 0.0882346 0.996095 0.0031892 4 
-7.1202 15.1277 -34.8179 148 122 105 0.0928364 0.988297 0.12104 4 
-8.68848 14.7362 -34.711 102 87 82 -0.349316 0.0783636 0.933722 4 
-8.55087 14.7734 -34.6899 142 115 107 -0.369215 0.0297963 0.928866 4 
-9.38391 14.1804 -34.8627 159 134 117 0.003881 0.410093 0.912036 5 
-0.657684 14.6433 -36.4191 209 208 206 -0.279111 0.958576 0.0568325 3 
-1.72016 14.7469 -36.1195 218 218 215 0.183829 0.982372 -0.0339556 4 
-2.05785 14.7613 -36.0501 223 224 221 0.0966422 0.992572 -0.0739028 5 
-2.67642 14.8123 -35.8892 224 226 222 0.0535818 0.996184 0.0688909 3 
-3.03338 14.7762 -35.8413 206 205 202 -0.123874 0.987455 0.0979196 3 
-3.26395 14.8002 -35.7688 216 217 214 -0.0119743 0.993865 0.109946 4 
-3.33926 14.8563 -35.726 215 216 213 -0.0685998 0.996331 0.0511776 4 
-4.61154 14.8995 -35.4133 231 232 225 0.0998211 0.994991 -0.00536673 5 
-4.79732 14.9175 -35.3682 227 229 225 0.0560921 0.998017 0.0285752 5 
-5.11821 14.9858 -35.2696 231 232 228 0.0481492 0.99884 -0.00102445 5 
-5.25456 14.9651 -35.2578 231 232 229 0.0669806 0.995925 -0.0603924 5 
-5.76182 14.9597 -35.1459 207 206 197 -0.0150724 0.999801 0.0130627 5 
-5.96568 14.9626 -35.0955 151 137 126 -0.0656882 0.997835 -0.00312801 5 
-7.21302 15.1209 -34.7726 154 127 109 0.086166 0.991483 0.0976548 5 
-8.5133 14.8659 -34.6094 115 82 70 -0.582732 0.034936 0.811913 3 
-9.65454 14.1135 -34.8012 121 107 97 0.158344 0.282853 0.946003 3 
-10.4965 14.6156 -34.3157 164 136 117 0.448335 0.0474071 0.892607 3 
-1.23891 14.6676 -36.2257 220 221 217 0.117153 0.993065 -0.00985401 5 
-1.60548 14.7118 -36.1248 224 224 222 0.180479 0.98261 0.0436453 3 
-3.77005 14.8696 -35.569 225 226 223 0.0240477 0.998502 0.049141 4 
-4.26006 14.8956 -35.4559 222 221 211 0.160364 0.982682 -0.0928423 5 
-4.52477 14.9223 -35.3691 229 230 224 -0.0296649 0.994324 -0.102179 5 
-5.45429 15.0009 -35.1523 230 231 227 0.0254721 0.999525 -0.017321 3 
-7.41168 15.1268 -34.6847 155 129 110 0.0706161 0.989783 0.123868 6 
-7.88806 15.489 -34.3449 117 101 89 -0.545407 -0.102716 0.831854 3 
-8.60955 14.6792 -34.6664 111 88 82 -0.517164 0.0231973 0.855572 4 
-3.07262 14.7705 -35.7342 139 128 129 -0.0206587 0.994879 0.0989442 4 
-3.17427 14.7897 -35.6922 211 207 206 0.106875 0.994258 -0.00539771 6 
-3.35457 14.8505 -35.6178 217 217 214 0.0232403 0.992692 0.118415 4 
-4.63023 14.9281 -35.3133 229 230 227 0.0218685 0.998662 0.0468611 5 
-6.06636 14.9752 -34.9905 154 137 123 0.0395629 0.999217 0.00101443 5 
-7.13697 15.1119 -34.7042 154 127 108 0.0853936 0.982628 0.164774 4 
-7.30461 15.1481 -34.6482 156 130 111 0.066908 0.976857 0.203157 6 
-7.45247 15.2076 -34.5715 160 134 116 0.102774 0.976974 0.186975 3 
-8.39794 14.8836 -34.577 120 87 74 -0.507404 0.0895419 0.857044 4 
-8.62339 14.4071 -34.7733 140 120 111 -0.467916 0.020111 0.883544 3 
-8.44869 14.7016 -34.6124 137 102 91 -0.56878 0.00409194 0.82248 3 
-8.46922 14.5486 -34.6819 142 106 93 -0.618039 0.0438426 0.784924 3 
-9.83358 14.1238 -34.6539 179 150 131 0.0392862 0.464661 0.884617 3 
-13.2496 13.3928 -34.3363 174 141 123 0.0343432 0.520642 0.853084 6 
-0.728388 14.539 -36.3246 211 212 209 -0.0901532 0.995927 0.00106063 3 
-1.64184 14.7482 -36.0079 228 228 226 0.177296 0.979406 0.0965956 4 
-2.40614 14.7885 -35.8134 219 221 217 0.0470882 0.988851 0.141264 7 
-3.99966 14.868 -35.4341 231 232 227 0.0898129 0.994594 -0.0521136 5 
-4.2982 14.9283 -35.3445 227 229 224 0.149982 0.981588 -0.118278 5 
-5.10631 14.9622 -35.1484 228 229 226 -0.0407822 0.998642 -0.0324167 6 
-5.48326 14.9632 -35.0598 226 227 223 0.0378423 0.999241 -0.00920488 4 
-5.72052 14.9782 -35.0133 227 228 222 -0.0239524 0.99871 -0.0447805 5 
-5.85094 14.9762 -34.9921 152 144 134 -0.119443 0.992383 -0.0301399 5 
-5.95342 14.9724 -34.964 153 137 126 -0.0840097 0.996419 -0.00957073 5 
-6.14133 14.9821 -34.9206 155 136 122 0.0514969 0.995971 0.0734104 5 
-7.16028 15.1742 -34.5974 149 125 107 0.111275 0.939801 0.323098 5 
-7.35579 15.193 -34.5443 141 113 94 0.137068 0.974564 0.177308 3 
-2.50299 14.8012 -35.7352 164 153 150 0.131049 0.990274 0.0467218 5 
-4.37653 14.9329 -35.2785 229 230 226 0.106959 0.988494 -0.106959 5 
-4.47711 14.8946 -35.274 232 233 230 -0.0883353 0.981369 -0.17062 3 
-4.71028 14.9361 -35.2061 228 229 224 -0.0817311 0.991134 -0.104754 5 
-4.83276 14.9505 -35.1736 227 228 223 -0.0788051 0.996398 -0.0313061 3 
-5.17434 14.9818 -35.0777 228 229 226 0.04227 0.999016 0.0134027 4 
-7.2783 15.0552 -34.5936 140 112 91 -0.0283815 0.988811 0.146448 3 
-8.33019 14.7996 -34.5418 127 88 77 -0.599228 0.0976844 0.794597 4 
-10.276 14.33 -34.3833 169 138 119 0.393988 0.0355775 0.918427 3 
-0.803512 14.6515 -36.1372 217 218 215 0.0282887 0.998487 0.0471479 5 
-1.16932 14.6649 -36.0508 212 214 210 0.292169 0.956075 0.0236221 3 
-1.73535 14.7298 -35.9042 222 223 221 0.0693464 0.992449 -0.101177 5 
-2.25876 14.7791 -35.7622 194 188 184 0.0499897 0.947241 -0.316601 3 
-2.39088 14.8115 -35.7067 133 118 115 0.118172 0.976475 -0.180368 3 
-4.09224 14.8868 -35.3301 221 224 219 0.212242 0.964854 -0.15495 3 
-4.2015 14.9289 -35.274 229 230 227 0.164151 0.981259 -0.100923 5 
-4.59096 14.9403 -35.182 228 229 225 -0.0646696 0.997609 0.0243836 4 
-4.91384 14.9614 -35.0944 229 230 226 0.0638734 0.997892 0.0115182 5 
-5.55674 15.0063 -34.9356 215 217 211 -0.233782 0.910442 -0.341234 3 
-6.01437 14.9824 -34.8543 152 136 126 0.0422286 0.989518 0.138099 5 
-8.40928 14.6123 -34.581 126 92 80 -0.628881 -0.00137611 0.7775 4 
-8.26925 14.6408 -34.5351 127 90 79 -0.556017 -0.0318912 0.830559 4 
-8.3774 14.5007 -34.6071 127 94 81 -0.500186 -0.028621 0.865445 4 
-8.45407 14.4276 -34.5932 148 114 100 -0.504004 -0.0628259 0.861414 4 
-9.02483 14.0136 -34.7343 164 142 126 -0.00405502 0.539318 0.842093 5 
-0.636508 14.6658 -36.1028 186 183 181 0.00516281 0.998488 -0.0547258 4 
-0.887986 14.6516 -36.0744 221 221 218 0.108488 0.993923 0.0186292 5 
-3.39876 14.8255 -35.451 224 225 223 0.108776 0.994066 -0.00107699 5 
-3.78433 14.8482 -35.3527 226 227 225 0.143909 0.983179 -0.112467 4 
-3.97967 14.8974 -35.2915 228 228 226 0.188532 0.981985 -0.012723 5 
-4.40815 14.9404 -35.1723 229 230 226 0.0320952 0.999094 -0.0279539 6 
-5.02445 14.9379 -35.0451 229 229 226 -0.0431371 0.998466 -0.0347201 5 
-5.22993 14.972 -34.983 227 228 224 0.135614 0.988709 0.0637503 4 
-5.38866 15.0088 -34.9364 230 231 227 0.15746 0.978235 0.135143 3 
-5.66554 14.9712 -34.9 220 221 217 -0.101816 0.991846 -0.0766479 3 
-5.77143 14.9574 -34.8892 202 202 195 -0.079471 0.996109 -0.0381025 3 
-5.89899 14.9645 -34.8499 155 145 134 -0.0788051 0.996398 0.0313061 4 
-7.18457 15.114 -34.5191 159 131 111 0.0270125 0.980672 0.193785 5 
-8.37519 14.5961 -34.4775 146 107 95 -0.352134 -0.124686 0.927607 3 
-10.5375 13.8979 -34.4044 145 119 105 -0.458306 0.0119558 0.888714 3 
-10.2385 14.0384 -34.4318 173 144 124 0.425731 0.00390579 0.904841 5 
-0.725739 14.6877 -36.0355 216 217 214 0.00953521 0.996959 -0.0773411 3 
-0.989513 14.66 -35.9956 214 215 212 0.188136 0.977569 0.0946827 4 
-2.16724 14.7966 -35.6896 125 109 108 0.0372807 0.97531 0.217671 3 
-2.29261 14.7735 -35.6634 137 116 109 0.0646578 0.992554 -0.103226 5 
-3.57816 14.8358 -35.3607 227 227 224 0.0862819 0.993923 -0.0683532 6 
-3.86634 14.8572 -35.2899 231 232 228 0.160364 0.982682 -0.0928423 6 
-4.11585 14.9193 -35.2044 228 228 225 0.0246256 0.996802 -0.0760182 5 
-4.50029 14.9222 -35.1247 229 230 226 -0.142599 0.989064 -0.037646 4 
-4.63244 14.9323 -35.0854 228 229 225 0.168754 0.979264 0.112092 4 
-4.72468 14.9444 -35.0442 232 233 230 0.0922152 0.994369 0.0522183 5 
-5.13523 14.9787 -34.9483 222 223 218 0.0732755 0.997185 -0.0159295 4 
-5.55543 15.0543 -34.8303 229 230 225 -0.17189 0.871205 -0.459843 3 
-5.9214 15.0323 -34.7537 156 147 136 0.100554 0.990517 -0.0936195 3 
-7.27561 15.1691 -34.4486 161 135 116 -0.0573601 0.954728 0.291899 3 
-8.3025 14.4477 -34.5488 127 95 85 -0.463285 -0.106258 0.879816 3 
-10.2109 13.9348 -34.4585 172 142 125 0.458253 0.0309085 0.888284 5 
-2.56146 14.8427 -35.5274 125 103 91 0.115482 0.991317 -0.0628863 3 
-3.68633 14.8493 -35.2862 229 230 227 0.125516 0.991912 -0.018883 5 
-4.01673 14.8978 -35.1865 226 228 224 -0.00973869 0.994429 -0.104961 5 
-4.31799 14.9271 -35.118 227 229 224 0.0882346 0.996095 0.0031892 5 
-4.92556 14.9927 -34.9507 225 226 222 0.0989063 0.980515 0.169728 4 
-5.28624 15.0093 -34.8615 222 224 219 0.115022 0.99276 0.0346182 4 
-5.45848 15.0098 -34.8286 220 222 217 0.0115182 0.997892 -0.0638734 4 
-5.62098 14.9556 -34.8096 225 227 221 0.00927662 0.998783 0.0484446 5 
-6.05457 14.9974 -34.7066 142 123 111 0.0631202 0.982531 0.175069 5 
-6.585 15.0452 -34.5747 150 123 105 0.0705968 0.993958 0.0840438 5 
-6.82372 15.0434 -34.5283 149 119 99 0.0440008 0.991711 0.12072 5 
-7.11465 15.0254 -34.4851 146 117 95 -0.0130647 0.972723 0.231601 5 
-8.19643 14.5049 -34.5093 134 104 93 -0.457675 -0.130559 0.879482 3 
-0.811679 14.6573 -35.9559 219 219 216 0.0768481 0.994571 -0.0701657 4 
-1.59474 14.7105 -35.7622 167 159 154 0.121318 0.947879 0.294629 3 
-2.33201 14.7961 -35.5585 130 105 93 0.100554 0.990517 -0.0936195 5 
-4.40117 14.9224 -35.0595 227 228 224 0.161032 0.984084 0.0751482 4 
-5.05839 15.0036 -34.8716 223 223 219 0.25638 0.966539 -0.00842562 4 
-5.77683 14.9864 -34.7438 197 194 184 -0.0624525 0.995952 0.0646438 5 
-7.37484 15.4491 -34.1328 180 167 153 -0.509801 -0.177907 0.841696 3 
-8.26107 14.3159 -34.5394 137 108 98 -0.401253 0.0775302 0.91268 3 
-1.17826 14.6574 -35.831 213 214 210 0.176346 0.973072 0.148435 4 
-1.812 14.7291 -35.6549 116 93 86 0.0478446 0.970387 0.23677 3 
-3.61692 14.8436 -35.2087 228 229 226 0.12606 0.991746 -0.0234271 5 
-3.741 14.8607 -35.1841 222 223 219 0.12466 0.991665 0.0325688 4 
-4.52676 14.9156 -34.9828 228 228 225 0.189462 0.980672 -0.0488549 5 
-5.15452 14.9765 -34.8234 228 229 225 -0.0179384 0.972263 -0.2332 4 
-6.28456 14.9998 -34.5843 155 130 113 0.071467 0.987651 0.139419 5 
-6.61779 15.0562 -34.4703 146 117 98 0.0935489 0.962401 0.255017 4 
-6.83492 15.0486 -34.4221 144 113 93 0.0802341 0.989554 0.11977 4 
-8.16441 14.6143 -34.4185 135 100 86 -0.499045 -0.0258361 0.866191 4 
-8.21532 14.4201 -34.4467 149 110 97 -0.51259 -0.0513979 0.857094 5 
-10.07 13.6882 -34.5006 148 125 114 0.0855433 0.384266 0.919251 3 
-0.774771 14.6038 -35.8781 213 215 211 -0.0670606 0.997394 -0.0266114 4 
-1.50047 14.6991 -35.6921 113 93 90 0.127322 0.986444 0.103523 4 
-3.41701 14.8171 -35.2191 230 231 227 0.136021 0.990368 0.0258553 4 
-3.83982 14.8716 -35.1074 228 229 225 0.0720634 0.9974 0.0010444 5 
-3.95431 14.8839 -35.0637 227 228 224 0.051966 0.997959 0.0371186 4 
-4.22025 14.8943 -35.01 226 227 223 0.181194 0.975949 -0.121213 3 
-4.34634 14.9391 -34.9456 228 229 225 0.305476 0.947893 -0.0904628 4 
-4.60968 14.9425 -34.9206 228 229 226 0.0745315 0.985472 -0.152612 5 
-4.80795 14.9701 -34.8645 228 229 225 0.0296993 0.9777 -0.207895 4 
-5.39826 15.0208 -34.7004 236 237 233 0.0376655 0.970797 -0.236928 4 
-6.03603 15.0052 -34.5771 142 125 110 -0.0211442 0.991552 -0.127978 3 
-6.16115 14.999 -34.5596 148 126 110 0.0933788 0.993415 0.0663777 5 
-1.59501 14.6857 -35.6319 127 103 95 0.121509 0.980662 0.15342 4 
-4.44872 14.9194 -34.9122 231 232 228 0.0436601 0.997792 -0.0500493 4 
-4.90416 14.9813 -34.781 233 234 230 0.0454344 0.935948 -0.349196 3 
-5.0301 14.9882 -34.7697 237 238 234 0.0928922 0.951164 -0.294377 3 
-6.32007 15.0445 -34.467 158 138 123 0.0647842 0.985897 0.154304 6 
-6.70748 15.0696 -34.375 154 126 107 0.0832631 0.97306 0.214993 6 
-8.11287 14.417 -34.3787 161 118 104 -0.519125 -0.0514949 0.853146 6 
-8.03787 14.3596 -34.4337 164 123 108 -0.404087 -0.0466767 0.913529 3 
-8.15518 14.1919 -34.5266 149 111 96 -0.461343 -0.0476313 0.885942 4 
-10.0611 13.5766 -34.4784 135 114 109 0.175033 0.409376 0.895419 3 
-10.1713 13.5704 -34.4583 137 113 105 0.244007 0.374145 0.894693 5 
-0.635561 14.671 -35.7894 173 176 181 -0.0872191 0.996021 -0.0183052 3 
-0.929115 14.6295 -35.7626 218 218 215 0.0719162 0.991987 0.103879 5 
-1.82345 14.7358 -35.5053 130 105 92 0.0130369 0.99983 0.0130369 4 
-3.75576 14.8752 -35.0321 226 227 224 0.0292505 0.999559 -0.00504319 5 
-4.15722 14.9134 -34.931 226 227 223 0.0197847 0.998606 -0.048941 3 
-4.69608 14.9548 -34.7979 230 231 227 0.0781919 0.988486 -0.129542 4 
-5.49113 15.0486 -34.5887 157 148 140 0.0563793 0.96346 -0.261851 3 
-6.22389 15.0076 -34.4614 143 121 106 0.0365687 0.994003 0.103057 5 
-6.43164 15.0057 -34.412 149 120 99 0.0457569 0.98436 0.170122 4 
-1.62551 14.6974 -35.5296 128 104 91 0.124948 0.986495 0.105908 3 
-2.38641 14.7695 -35.3376 131 105 94 0.0614047 0.998086 -0.0072853 5 
-3.17165 14.787 -35.1672 227 227 224 -0.0471506 0.998544 -0.0261948 3 
-3.36333 14.8089 -35.0807 227 227 224 -0.02812 0.998779 0.0406177 6 
-3.87112 14.9063 -34.9536 228 229 225 0.137514 0.989873 0.0352308 5 
-4.25472 14.9167 -34.874 226 227 223 0.0933788 0.993415 -0.0663777 4 
-4.77775 14.9746 -34.7243 235 235 231 0.0668666 0.986576 -0.148984 4 
-4.97846 14.9986 -34.6781 237 238 233 0.101925 0.978726 -0.178062 5 
-5.30066 15.0099 -34.6003 169 161 156 0.0860532 0.971528 -0.220745 3 
-5.921 14.9778 -34.4799 141 124 114 -0.00553449 0.990673 0.136148 5 
-10.0977 13.4767 -34.4279 160 133 114 0.220847 0.416497 0.881905 4 
-10.4346 13.6083 -34.2896 160 135 120 0.349583 0.164262 0.922394 5 
-1.08806 14.628 -35.6213 198 197 190 0.121128 0.992363 0.0233366 5 
-1.34335 14.6711 -35.5612 131 108 97 0.0836939 0.991715 0.0974518 4 
-1.76535 14.7555 -35.426 129 103 91 0.0880486 0.996116 -0.00106083 5 
-3.50979 14.8536 -34.9969 227 228 224 0.160573 0.987018 0.00336866 5 
-3.775 14.9113 -34.9184 231 232 228 0.0179138 0.997905 0.0621715 3 
-4.44441 14.9303 -34.778 235 235 232 0.100896 0.952613 -0.286963 3 
-4.86603 14.9675 -34.6674 225 225 220 0.0826603 0.995231 -0.0518005 7 
-5.07449 14.9549 -34.6446 147 139 134 0.0938122 0.99024 -0.103078 3 
-5.64278 15.0371 -34.4703 153 142 132 0.0340339 0.982289 -0.184253 4 
-5.82209 15.0006 -34.4552 134 118 106 0.0330029 0.98895 0.14453 5 
-6.07568 15.0072 -34.4015 144 122 108 0.0413504 0.981777 0.185486 5 
-6.25698 15.0486 -34.3425 148 124 108 0.0385198 0.984006 0.173923 6 
-1.66326 14.7253 -35.4153 127 101 88 0.0277864 0.999283 0.0257282 5 
-3.60948 14.8729 -34.9237 231 232 229 -0.0459009 0.993026 0.108595 4 
-3.93117 14.8969 -34.8513 231 232 228 0.0769113 0.985648 -0.150273 4 
-4.23555 14.9314 -34.7731 224 225 221 0.0569 0.994076 0.0926019 3 
-4.60234 14.9346 -34.6973 228 228 223 0.0522448 0.951875 -0.302001 3 
-5.35766 14.9948 -34.5123 145 129 119 0.0942305 0.994408 -0.0476695 5 
-5.55111 15.0699 -34.4216 177 170 161 0.0179384 0.972263 -0.2332 3 
-5.57543 14.9556 -34.4917 149 137 123 0.0574428 0.974084 -0.218772 3 
-5.94261 15.0753 -34.3369 133 120 108 -0.00791263 0.986817 0.161644 3 
-6.35391 14.9957 -34.3122 152 119 97 -0.00322626 0.994762 0.102165 5 
-10.2666 13.4112 -34.3491 142 120 107 0.286371 0.269102 0.919552 5 
-1.13082 14.6403 -35.5267 149 143 134 0.137216 0.989995 0.0328864 5 
-1.2573 14.6509 -35.4978 131 109 97 0.0722136 0.997384 0.00313972 5 
-4.31016 14.9376 -34.7023 226 227 222 0.0613004 0.988903 0.135324 4 
-4.70802 14.9267 -34.6188 134 126 123 0.167643 0.959658 0.225724 4 
-4.91451 14.9407 -34.5822 127 116 111 0.0082615 0.973677 0.227781 4 
-5.21799 14.9769 -34.5036 154 138 127 0.0921019 0.992654 -0.0784572 4 
-5.45437 14.9758 -34.4453 133 120 108 0.0662774 0.979701 0.189192 3 
-5.72305 14.9532 -34.3899 137 118 103 -0.0222558 0.980428 0.195617 4 
-5.97028 14.9709 -34.3515 141 117 102 -0.0315548 0.995609 0.0881358 5 
-0.941973 14.6285 -35.5175 217 218 213 0.0355101 0.999356 -0.00507288 6 
-1.49215 14.6919 -35.3754 127 101 89 0.100317 0.993022 -0.0619934 5 
-1.70434 14.7153 -35.3124 129 104 92 0.087785 0.994526 -0.0566713 5 
